ply
            format ascii 1.0
            element vertex 19504
            property float x
            property float y
            property float z
            property uchar blue
            property uchar green
            property uchar red
            end_header
-111.356699 -108.144569 -67.431772 74 54 43
-107.790375 -60.872912 -81.192422 41 28 25
-107.818258 -59.583873 -81.829780 41 28 26
-107.818258 -59.583873 -81.829780 41 28 26
-108.930707 -68.527389 -78.946519 162 121 101
-108.930707 -68.527389 -78.946519 162 121 101
-111.545599 -97.497964 -71.582484 137 108 93
-108.633900 -62.818581 -80.260998 143 106 73
-108.901680 -65.177381 -79.594219 159 120 100
-108.901680 -65.177381 -79.594219 159 120 100
-108.911097 -58.388054 -80.855173 153 117 99
-109.949946 -69.250238 -77.771622 63 35 29
-110.771143 -68.038446 -76.825947 123 87 66
-111.387146 -74.407285 -73.597997 68 43 38
-110.641706 -65.440673 -74.548441 106 75 57
-110.627961 -62.398958 -75.946325 90 66 52
-110.639608 -57.587558 -78.435391 154 116 100
-111.173439 -58.301657 -77.009088 45 24 21
-110.773921 -37.198496 -81.054860 18 13 9
-110.773921 -37.198496 -81.054860 18 13 9
-145.062900 -195.537567 -113.634932 228 164 137
-151.410651 -174.736762 -102.993488 134 94 75
-138.002074 -116.442156 -60.493153 28 22 31
-125.008130 -3.522747 -74.752098 45 13 17
-125.008130 -3.522747 -74.752098 45 13 17
-135.966301 -93.000942 -62.712204 71 60 65
-140.455580 -109.019840 -65.659881 37 25 23
-136.419964 -78.680182 -66.324079 60 47 52
-141.746140 -106.486011 -73.437262 43 30 26
-139.945579 -100.439858 -65.315956 43 30 26
-141.848862 -110.969663 -66.243070 159 119 98
-141.789377 -106.727028 -66.722244 160 123 98
-141.661334 -103.250432 -67.011935 162 123 103
-137.570715 -71.267724 -69.635445 22 15 16
-137.570715 -71.267724 -69.635445 22 15 16
-96.622741 9.323464 139.442861 160 123 98
-2515.704346 1525.393963 1923.381805 44 34 45
350.986600 -243.701148 -127.016485 90 82 89
103.281379 -35.967052 29.047385 150 115 97
102.052462 -16.024520 21.014245 115 85 72
102.118492 -17.719226 21.396570 103 78 67
99.571908 -9.165037 20.330353 133 93 79
-402.871084 207.404947 431.512785 48 41 57
99.621779 -12.361760 19.033380 82 49 38
-2309.287453 1446.561909 1874.937820 48 34 46
-249.719000 133.799970 311.883187 52 44 56
96.521372 -19.706170 17.657220 71 61 74
96.126866 -16.884038 16.055425 121 90 76
96.072882 -20.147176 16.781768 112 84 71
95.836431 -15.429893 14.433239 17 11 9
98.186707 -55.386794 25.739211 136 100 89
93.801492 -14.122204 14.682166 109 81 65
92.435998 -15.536523 13.261315 17 13 10
91.996634 -13.811401 12.436992 130 95 82
416.576672 -81.962538 -306.613207 133 100 93
314.011168 -244.999409 -144.870758 60 49 60
92.104185 -45.559451 18.152806 29 18 18
91.972518 -48.530653 19.218408 118 85 70
64.662558 -38.352925 44.756889 43 26 17
227.245092 -125.585461 -104.686713 31 16 11
65.250546 -39.706811 42.568517 36 25 23
90.770954 -96.786654 30.056962 90 82 89
81.472576 9.138456 2.992599 19 12 8
-2214.653587 1522.842979 2080.367279 44 32 44
-2111.941528 1345.229244 2098.478508 162 129 116
132.666135 -177.517462 -2.638803 70 44 38
78.173143 -25.374481 5.529867 45 38 48
283.197618 -69.065559 -228.061390 100 73 57
78.463924 -17.453861 1.916527 117 86 69
79.813856 -57.440507 11.443929 106 93 96
76.804996 -24.539924 2.355251 46 34 31
80.057365 -106.289518 26.240158 114 78 65
75.682914 -7.544100 -2.443950 80 49 32
79.587340 -81.634790 16.747582 167 124 108
78.445768 -107.031596 24.328120 102 71 60
322.413898 -194.524753 -253.279924 24 19 14
70.731413 7.048317 -7.071619 25 19 21
245.374703 -59.882146 -206.685138 109 81 70
76.807326 -83.938015 15.656337 48 43 61
72.879583 -25.606355 0.352365 86 76 87
76.013082 -59.851754 7.548913 19 14 15
72.481447 -18.932937 -2.200964 67 43 42
73.359865 -21.414040 -2.541328 110 86 77
74.327081 -62.008530 7.831691 38 32 48
314.241672 -200.408840 -256.491399 45 41 53
73.271334 -62.276965 7.768746 101 90 99
92.738616 -139.964032 7.749684 142 105 81
69.960374 -9.738266 -7.850415 38 26 21
69.499940 -8.214470 -8.330512 133 100 93
69.480205 -13.175859 -7.583518 44 28 27
117.439914 -179.910684 -15.331599 78 49 45
69.365621 -18.860886 -6.019477 116 83 74
265.351844 -69.219196 -250.144219 119 90 84
193.095636 -130.876994 -133.759880 24 19 14
265.921426 -76.710445 -249.532413 117 88 81
268.552971 -253.817940 -194.808269 48 37 43
306.762743 -190.702868 -271.989560 156 117 101
265.397167 -238.715053 -200.472212 160 127 110
137.716377 -91.936433 -80.086261 152 119 103
257.275295 -224.970460 -212.040377 48 41 57
255.018663 -223.527527 -209.831691 48 41 57
257.603621 -228.730774 -212.537503 162 129 116
62.988085 -56.902093 -2.104881 167 124 108
60.472947 -29.604220 -9.343671 114 79 65
59.838998 -12.154368 -17.994452 17 12 10
59.838998 -12.154368 -17.994452 17 12 10
59.448606 -21.734574 -14.481702 150 118 101
59.622461 -15.637910 -16.961192 22 15 10
58.836514 -21.187955 -14.763945 55 31 27
59.025913 -23.001345 -14.678437 73 41 33
59.025913 -23.001345 -14.678437 73 41 33
101.958537 -181.634438 -27.748430 74 46 42
58.231580 -21.309765 -15.222359 69 36 34
58.421201 -22.190525 -15.274690 151 111 95
58.651352 -23.945951 -15.222041 135 101 86
58.651352 -23.945951 -15.222041 135 101 86
57.051480 -10.110177 -18.299501 144 110 94
57.809097 -21.423499 -15.866366 59 32 27
58.053124 -25.001413 -15.522110 70 39 33
57.158411 -12.328833 -19.095273 19 13 12
262.917805 -155.930305 -282.086372 44 37 52
57.262468 -22.363827 -16.257820 148 110 91
57.693863 -25.873443 -16.136044 131 98 78
3.726374 4.580402 55.012113 133 100 87
56.541097 -21.521263 -16.701739 52 27 26
56.541097 -21.521263 -16.701739 52 27 26
59.450531 -103.231084 5.222080 120 80 69
57.701176 -51.313341 -9.691541 35 25 18
56.337595 -22.943303 -17.115994 152 119 100
16.917226 -91.600549 64.545757 248 189 167
55.697268 -23.419470 -17.065887 94 59 52
57.055539 -53.866041 -10.112916 44 23 23
58.297354 -101.237607 2.197721 44 35 43
53.038311 -22.633792 -15.557867 93 78 87
85.725093 -71.205813 -50.803775 52 25 20
54.218894 -27.551582 -16.561007 90 79 91
53.944480 -12.151100 -21.340722 63 39 34
54.108089 -19.257274 -19.617698 120 91 79
54.057157 -17.731610 -20.060191 119 88 72
-16.916350 -54.872221 101.685548 251 188 167
55.478638 -61.168694 -9.791361 156 119 102
52.749473 -11.122851 -21.661274 87 54 45
84.438795 -71.803415 -52.400446 45 29 26
52.936536 -22.022547 -19.744106 64 35 33
52.336776 -21.405572 -20.340309 111 80 69
51.700634 -11.313826 -22.665885 85 50 38
52.574456 -23.069279 -20.294003 150 114 97
52.574456 -23.069279 -20.294003 150 114 97
53.785634 -57.460785 -12.248990 111 97 99
51.810765 -22.213675 -20.753402 56 28 26
51.857054 -23.051834 -20.654975 86 48 35
-150.073779 75.321788 267.991233 122 90 85
51.378983 -23.235014 -21.268068 150 114 97
51.378983 -23.235014 -21.268068 150 114 97
51.766372 -24.947108 -21.411973 144 111 92
50.922906 -16.063239 -23.745859 48 33 31
53.896010 -101.747918 -1.155477 48 37 43
52.169317 -65.299058 -10.425590 43 33 41
50.591677 -22.341193 -21.635668 61 33 29
50.430965 -18.281193 -22.998957 90 68 55
50.463295 -17.697242 -23.625775 48 31 29
50.249600 -23.414274 -22.184400 151 114 96
50.021452 -16.656992 -24.060012 119 90 84
1.559594 -47.498533 63.340604 113 73 54
50.189000 -54.783392 -15.183106 95 53 43
49.776918 -62.089556 -14.832264 156 117 101
243.386555 -194.127452 -295.330429 25 18 17
86.676860 -183.384502 -40.640751 74 49 43
86.435902 -183.210433 -40.392885 74 49 43
81.302673 -177.933621 -37.513000 166 122 99
43.049076 -59.948707 -19.604833 169 125 109
43.049076 -59.948707 -19.604833 169 125 109
75.976104 -185.781550 -43.407446 254 197 177
41.442835 -106.804991 -8.944022 161 117 104
75.167167 -184.402895 -48.639017 68 40 38
65.202451 -173.850548 -38.282013 68 40 38
38.547453 -68.456793 -21.462856 50 42 56
-406.705475 251.561236 707.442760 32 18 20
38.877010 -106.169343 -12.408530 121 79 70
197.199142 -184.361148 -287.607312 22 17 17
196.367049 -156.467998 -297.619081 172 129 117
36.955497 -53.309715 -28.004840 150 114 101
37.775806 -105.219007 -13.913096 53 45 59
393.168330 -434.707165 -587.052059 70 38 25
37.490788 -99.424058 -17.898934 85 55 41
37.411591 -102.732182 -17.279448 87 57 43
37.226766 -94.069999 -19.674370 89 56 43
36.393696 -95.058560 -19.728252 161 128 108
36.393696 -95.058560 -19.728252 161 128 108
36.393696 -95.058560 -19.728252 161 128 108
-64.152151 15.876716 130.466056 155 179 199
36.292514 -102.069020 -18.450174 144 105 94
33.832631 -66.824651 -27.766189 110 97 98
35.049030 -97.782254 -21.446891 84 54 41
34.670466 -98.820096 -20.634222 84 54 41
34.738758 -102.799809 -19.816397 85 58 41
34.203330 -95.425463 -21.632242 159 125 111
34.136319 -98.214543 -21.054707 161 129 112
32.181442 -69.321340 -26.536438 46 39 53
-203.008580 139.824128 375.994754 104 88 91
196.874964 -265.202188 -295.945311 112 96 98
32.810673 -106.081772 -18.408942 55 43 59
33.500636 -104.002988 -20.457587 106 85 91
190.943909 -278.818297 -288.826156 45 35 44
31.626663 -106.126034 -19.150767 53 44 58
-14.426734 -24.871060 49.372613 95 53 43
31.897873 -97.051793 -23.336308 78 51 36
31.305507 -93.531764 -24.809451 76 47 35
182.952106 -185.105801 -308.527827 154 117 97
186.676860 -256.200051 -304.415822 68 42 31
183.367395 -282.357264 -300.396681 43 33 44
24.790458 -82.669646 -33.507642 174 130 113
23.108076 -100.718272 -28.323060 173 128 113
-40.405086 22.112268 75.573277 75 55 50
-40.545881 23.264793 74.813998 10 6 4
-40.615162 23.255312 74.888843 10 6 4
-289.185619 203.288579 595.681953 145 108 92
694.193554 -589.446783 -1471.374226 141 106 89
18.154308 -96.705550 -35.811988 64 38 31
44.426143 -189.659917 -76.889235 72 44 42
16.316275 -99.462670 -36.728892 77 49 35
681.361294 -941.062641 -1410.144234 68 39 31
15.096834 -69.592237 -43.570748 106 90 94
-278.758740 270.645547 578.574562 40 30 39
-279.721642 266.862035 583.766937 104 79 82
13.597037 -57.960480 -47.323659 26 19 20
-274.098659 253.834534 576.006556 94 72 75
13.440228 -108.294725 -34.994841 93 84 93
13.440228 -108.294725 -34.994841 93 84 93
23.174220 -149.080849 -49.699745 143 94 78
-2.547374 -76.885998 -6.789883 145 116 104
-50.784737 -7.588489 92.317647 152 119 103
10.885388 -97.526681 -42.458674 68 42 31
-50.317407 12.044257 73.530018 56 26 15
-50.831330 11.472717 73.696184 76 41 29
-55.251497 4.119495 75.407457 65 41 40
-56.657714 10.950882 76.385272 59 62 110
-9.072680 -101.061058 -57.272059 121 105 109
-57.692409 11.528146 76.921481 7 2 27
-252.941799 282.583785 666.190624 32 20 18
-156.093287 77.503508 349.117208 31 18 17
-10.328855 -63.555098 -66.093314 32 17 15
-255.767083 210.186267 696.073771 145 110 96
-11.591010 -101.297832 -60.115874 55 26 21
-11.629880 -105.436945 -59.412634 69 39 33
-12.257150 -106.720042 -60.012281 58 37 27
-14.055705 -103.550589 -59.544438 139 109 87
184.110963 -467.962837 -679.442549 40 30 39
184.110963 -467.962837 -679.442549 40 30 39
181.679702 -471.169853 -683.877468 88 81 85
-301.200318 318.685460 751.426029 50 41 56
176.291490 -462.652302 -692.586660 68 41 28
-17.328656 -101.625478 -64.259106 117 84 69
-17.743352 -112.829947 -63.141882 49 41 52
165.767872 -315.318537 -705.843306 16 15 15
-53.016353 -44.894752 53.721291 72 45 31
-18.950146 -103.062189 -66.375667 155 123 105
-21.261331 -41.672853 -77.980810 92 61 55
-21.261331 -41.672853 -77.980810 92 61 55
-21.538962 -58.547050 -75.189537 105 74 69
-26.409695 -47.485548 -80.032349 145 105 88
-75.815642 -26.857552 59.409702 145 108 92
208.421350 -644.453287 -1156.483269 32 20 18
-32.472381 -36.308303 -91.885704 18 12 12
-32.192948 -33.032811 -93.810302 21 13 14
-32.852328 -25.366220 -93.047863 11 10 8
-34.158534 -102.464044 -80.311441 147 116 103
-33.767518 -40.191463 -89.956969 14 12 11
-34.895006 -32.877597 -94.317913 10 10 11
-34.930027 -36.573166 -93.749291 16 15 15
-34.735352 -25.825727 -95.857561 15 10 10
-37.059677 -115.331531 -78.891200 40 30 39
-37.059677 -115.331531 -78.891200 40 30 39
-76.223481 -20.263158 73.820972 101 82 86
-60.703450 -50.193292 31.648356 102 87 90
-35.933107 -31.268090 -95.574921 128 96 72
-36.058187 -28.553000 -97.587204 80 60 67
-37.825888 -108.206487 -82.711959 94 72 75
-39.265054 -116.211164 -78.580219 50 41 56
-39.054996 -79.099727 -84.876436 30 29 46
182.408774 -654.532909 -1192.044735 33 20 18
160.380650 -298.343539 -1150.341415 27 16 18
-40.801537 -78.440225 -88.065827 53 41 41
-39.651981 -35.555318 -98.009264 128 93 76
-39.651981 -35.555318 -98.009264 128 93 76
-41.282940 -110.804605 -84.345758 63 38 25
112.913954 -225.025654 -944.745445 28 20 19
-42.753923 -116.214037 -83.743817 39 30 38
-42.753923 -116.214037 -83.743817 39 30 38
-41.364968 -40.090898 -98.620355 26 17 13
-41.924816 -32.072407 -100.367856 135 105 91
-45.238703 -45.118722 -98.213792 72 48 46
-47.222859 -9.488602 -106.009173 10 10 10
-50.004125 -73.789489 -99.131024 153 112 93
-54.399538 -25.493783 -109.958589 64 22 17
-58.773065 -145.289147 -99.223667 20 12 9
-59.091920 -116.852832 -98.106033 16 12 10
-59.414506 -80.920929 -103.820288 42 33 28
-58.295304 -44.005406 -110.362363 27 19 17
-58.295304 -44.005406 -110.362363 27 19 17
-53.616667 -143.504107 -163.188112 29 15 19
-60.440189 -68.793976 -109.562540 23 18 14
-59.673345 -27.694401 -117.513990 143 106 90
-63.039505 -117.315590 -101.251638 93 70 74
-63.039505 -117.315590 -101.251638 93 70 74
-92.672545 -3.314244 65.358102 129 98 82
-60.338211 -34.742200 -116.209567 129 98 82
-63.817638 -39.119920 -118.430007 113 78 64
-64.943367 -67.804193 -113.851237 130 95 84
-66.896820 -118.402719 -105.984735 16 11 10
-66.167182 -73.523742 -113.798892 26 20 18
-64.987820 -37.432757 -119.286120 28 20 19
-67.968321 -107.795572 -108.471274 143 115 98
-65.891969 -35.693955 -121.125472 119 92 69
-65.591812 -34.409282 -123.197997 119 92 69
-77.451921 -113.685465 -109.385955 118 91 78
-77.289295 -105.938029 -111.214542 127 98 86
-78.342044 -116.454136 -108.098137 41 22 23
-77.028322 -83.438152 -115.160668 117 89 77
-99.022043 -24.479771 61.092860 108 85 70
-77.929670 -86.378324 -113.884485 31 16 19
-99.621534 -19.123603 65.764356 41 22 23
-80.114818 -120.763636 -104.941106 46 25 22
-80.069888 -118.393958 -105.462384 56 33 24
-80.015564 -115.971696 -105.795383 53 29 29
-79.899490 -105.544174 -107.825589 62 36 29
-78.799325 -83.049268 -113.264799 108 85 70
-101.355135 -11.800243 78.064412 118 91 78
-94.848353 14.263138 110.818577 139 106 87
-100.228190 -42.385608 27.109313 46 35 48
-103.716362 -39.417940 48.613527 102 77 60
-104.721987 -37.692815 48.478627 102 77 60
-106.277621 -19.029242 69.113940 68 38 35
-111.563122 7.714153 122.087812 31 19 19
-26.728952 -7.993657 119.607127 60 35 20
139.312387 -35.212743 60.429275 136 97 85
136.485696 5.006051 50.624359 42 24 19
697.576761 -287.079000 -119.166112 41 35 46
697.576761 -287.079000 -119.166112 41 35 46
137.301755 -16.030213 55.148041 76 44 42
137.841833 -31.628048 58.811009 139 98 80
135.527492 6.121426 49.553055 35 22 18
135.527492 6.121426 49.553055 35 22 18
137.294126 -23.834918 56.896985 126 86 72
163.999093 -139.115965 76.374382 75 48 39
136.527073 -15.031278 54.608345 67 40 32
136.527073 -15.031278 54.608345 67 40 32
136.053753 -3.764992 51.742142 110 76 66
136.426044 -13.774426 54.087251 64 36 28
136.110878 -8.931985 52.812928 115 81 67
164.635432 -141.756749 76.248085 249 189 166
157.420945 -140.953779 79.046720 18 13 12
157.420945 -140.953779 79.046720 18 13 12
135.955620 -16.242583 54.334635 119 84 68
136.118603 -14.932792 53.838706 118 85 68
136.394370 -26.158735 56.554163 83 50 38
136.394370 -26.158735 56.554163 83 50 38
136.562908 -33.886451 58.537203 128 91 80
135.957670 -18.046370 54.303163 109 78 71
133.855712 9.087600 47.742447 48 29 25
133.973622 5.441239 48.617178 32 18 13
133.815873 7.352277 47.732872 110 73 59
135.442996 -18.361077 53.766006 51 29 21
133.584023 4.704065 48.020709 109 76 65
133.584023 4.704065 48.020709 109 76 65
135.101497 -25.440574 55.170286 127 88 73
135.101497 -25.440574 55.170286 127 88 73
134.755528 -19.059689 53.495425 92 70 60
146.224999 -115.112126 74.226737 12 7 6
135.557175 -34.172848 57.059467 131 93 76
134.794617 -34.907779 56.863081 45 25 22
134.623730 -35.638914 57.086998 26 23 30
134.623730 -35.638914 57.086998 26 23 30
134.350526 -28.986320 55.366331 86 52 37
134.152472 -25.935584 54.581255 67 40 30
134.167957 -25.950256 54.577076 67 40 30
134.990931 -0.620426 47.310385 94 71 59
134.598279 -34.299424 56.509167 117 85 68
134.490180 1.049953 46.984011 85 56 50
134.794033 -2.326524 47.617084 91 66 55
134.987247 -3.994942 47.920004 90 71 62
131.856096 6.065114 46.449855 35 21 15
131.286991 13.442804 44.582701 52 32 29
135.507917 -53.827310 60.572404 23 20 29
134.928691 -12.231024 49.481785 73 55 52
135.972500 -0.295616 45.751286 20 13 9
134.301472 -9.135751 48.922846 90 66 58
134.750426 -13.854949 49.849084 77 59 52
132.845962 -23.240611 53.103769 65 40 36
133.160484 0.952335 45.930001 82 58 46
133.491898 -34.532657 55.262876 115 80 67
132.527757 -19.862650 51.640904 111 78 67
135.444343 -42.539713 56.110680 73 45 29
140.648115 -117.065454 73.691398 26 19 15
135.224366 -44.564152 56.678331 70 41 28
133.169377 -9.247608 47.874200 74 56 45
134.927022 -43.511382 55.951846 64 42 33
148.861969 -118.766212 69.451672 170 114 90
195.438659 -161.042404 58.675635 105 73 63
134.241450 -47.279978 56.916571 59 40 32
134.181058 -38.957924 54.585379 63 39 31
-850.587845 126.312685 478.151131 91 70 56
132.008517 -54.804397 58.708417 86 76 79
130.982256 -34.757274 53.723896 118 86 71
130.418098 -26.439685 51.626402 82 48 39
130.418098 -26.439685 51.626402 82 48 39
133.888900 -75.664496 63.040477 42 35 45
-811.482811 219.531369 439.543772 49 26 23
130.157638 -29.987416 51.991856 70 38 32
130.061138 -23.600537 50.308585 80 51 43
129.911733 -24.957614 50.666517 134 95 81
128.329360 4.934415 43.364534 28 16 15
130.919099 -54.976463 57.820457 86 74 79
129.974425 -31.402972 51.958287 90 54 41
127.755404 3.765232 43.256098 98 73 59
127.323675 6.785521 42.437762 32 19 17
126.309896 -12.046576 47.769317 25 22 24
128.156924 -19.947904 47.922403 94 71 62
83.770281 2.199608 63.667226 91 66 55
130.848861 -42.474717 52.147496 73 58 61
130.848861 -42.474717 52.147496 73 58 61
129.018950 -8.124164 43.543440 87 66 62
609.805059 -164.404500 -154.934597 134 102 96
130.056334 -40.328595 51.361954 126 97 92
128.970289 -11.410715 44.194722 88 67 64
128.743303 -9.939963 43.865737 70 54 50
128.859615 -13.001031 44.547489 93 73 61
130.039012 -42.549482 51.701450 135 105 94
127.223623 -27.387083 49.003783 82 53 38
127.223623 -27.387083 49.003783 82 53 38
132.084441 -50.612390 52.699018 102 76 77
128.861618 -16.269195 45.129231 81 63 55
125.291789 12.622339 39.113563 108 75 62
127.897036 -35.004830 50.461137 127 91 76
127.653396 -58.872688 56.745929 159 117 99
129.728389 -41.974100 51.053524 57 33 18
129.704666 -45.440751 51.752025 59 33 18
129.338920 -40.371361 50.246572 17 15 15
129.338920 -40.371361 50.246572 17 15 15
127.845109 -38.544223 50.331777 127 91 80
672.916222 -234.483457 -173.563278 88 77 86
127.115417 -10.210454 42.944598 70 53 46
124.633622 3.718164 40.369931 117 83 69
128.496838 -48.172119 52.089578 48 29 22
126.200294 -32.825926 49.190846 83 51 40
124.031889 9.425975 38.795447 67 42 33
126.274633 -0.012722 39.907110 87 61 50
125.811028 -35.265929 49.300009 75 44 41
125.858438 -32.077622 48.190606 142 103 87
130.544591 -82.996517 58.928782 89 76 79
125.201643 -35.685858 48.729131 119 85 69
125.136781 -17.227674 43.296367 25 19 17
123.948491 12.231061 36.101103 114 78 64
125.210166 -44.934291 50.284463 85 59 53
124.803650 -53.794450 52.710617 27 24 31
599.488401 -199.351716 -155.216837 33 22 21
124.872422 -10.541514 40.924665 75 58 51
124.872422 -10.541514 40.924665 75 58 51
124.767721 -56.652534 52.737319 64 43 42
127.441049 -52.584648 50.269067 44 31 22
124.137783 -40.442657 48.474801 73 65 70
122.006261 -28.377095 46.141553 93 59 48
121.255922 -16.262521 41.267905 25 20 23
121.154130 -21.025634 42.153051 115 80 67
119.518399 -3.011699 37.864372 96 66 55
120.573330 -20.292550 41.791034 50 31 27
120.923543 -26.571009 43.069515 75 49 44
119.601488 -9.453644 39.120772 86 55 45
122.526681 -76.854885 54.981661 41 35 46
121.942139 -40.697858 45.699358 119 81 66
121.942139 -40.697858 45.699358 119 81 66
119.889784 -14.230086 39.787775 121 84 67
119.889784 -14.230086 39.787775 121 84 67
119.360530 -7.363088 38.010538 54 32 31
121.016467 -47.602522 47.581598 141 101 86
121.016467 -47.602522 47.581598 141 101 86
119.916141 -21.594159 41.253909 65 40 40
119.109714 -1.877236 36.465827 113 81 69
118.348289 11.473422 33.354655 108 73 63
120.157969 -40.583238 45.751497 90 56 44
118.970990 -6.846002 37.471592 102 76 68
119.975221 -35.012272 44.285285 83 54 47
119.161606 -18.003497 40.115094 79 48 38
119.161606 -18.003497 40.115094 79 48 38
119.801283 -38.678616 44.859284 143 105 88
119.727314 -41.089118 45.381957 134 100 83
121.946752 -92.474389 57.429773 57 49 59
119.490814 -35.843605 43.730152 141 101 87
116.932166 13.203512 31.982765 21 15 16
116.932166 13.203512 31.982765 21 15 16
119.411194 -37.510473 43.890551 53 34 34
117.181802 7.872602 33.026215 26 21 19
118.785954 -28.771827 41.565007 75 49 43
117.444658 1.971840 34.256425 97 72 62
118.622565 -29.079998 41.599685 72 45 38
118.459761 -36.124167 43.243319 83 49 41
119.019091 -50.332493 46.484002 59 36 30
117.391872 -21.959732 39.102453 107 78 75
118.122745 -39.474863 42.688742 77 68 78
117.086565 -29.392904 40.281790 122 90 80
117.941773 -3.276177 33.020109 90 66 59
118.141675 -57.791579 46.920916 63 40 36
117.729378 -4.876112 33.397278 99 74 64
117.861760 -6.491470 33.650604 101 77 66
115.050602 10.731915 30.692095 121 84 69
115.210760 -19.285548 38.118711 11 13 18
115.092587 2.841079 32.403722 109 75 65
118.057346 -42.699298 42.522112 59 44 55
117.767918 -14.733928 35.239103 97 73 66
117.648768 -16.340807 35.566795 81 58 55
117.067981 -57.053077 46.178851 79 69 81
116.454697 -1.524446 31.877506 95 69 56
115.634382 -25.630069 38.379687 115 84 71
115.549982 -26.548645 38.533911 66 41 35
118.210578 -54.073542 43.839622 103 80 77
115.478194 -34.717086 40.111345 125 92 77
114.994967 -28.263044 38.401425 74 47 34
114.975047 -50.839549 43.846542 120 85 74
175.899947 -17.387876 0.074894 79 58 48
116.364861 -49.568108 42.367232 58 39 31
114.570284 -27.436951 37.640041 78 45 41
115.134215 -58.065891 44.688520 75 50 46
113.354862 -54.827297 44.687715 33 29 39
115.784776 -50.380629 42.130843 54 34 27
113.592553 -23.510611 36.134639 61 36 36
113.156736 -26.801899 36.356077 52 33 30
113.891113 -12.156695 32.137060 80 61 53
-269.632745 114.599955 221.337652 125 88 70
112.611187 -22.856142 35.351869 102 69 55
115.170026 -78.170258 47.852620 35 28 39
112.345839 -27.319759 35.933629 107 78 69
112.092149 -58.805478 44.041318 155 114 97
115.372360 -92.739111 50.018626 41 30 36
113.988137 -17.838483 31.031591 21 18 21
111.655498 -28.507909 35.284278 112 82 79
111.417913 -22.624362 33.904186 96 71 65
111.564767 -36.769745 37.408379 120 86 73
112.456918 -4.018760 28.415114 92 69 63
112.010324 -2.260638 28.168061 84 61 52
112.370515 -5.675422 28.757894 86 63 59
111.421609 -30.378541 35.599661 124 89 75
111.421609 -30.378541 35.599661 124 89 75
112.193334 -17.885137 31.739265 21 18 21
112.369108 -8.983682 29.405165 98 72 61
112.363601 -10.565682 29.731613 93 68 59
112.318552 -13.917403 30.307314 77 57 52
112.067759 -12.392904 30.060714 79 59 53
112.379789 -15.590931 30.665994 92 68 60
112.332940 -7.499019 28.557995 17 10 8
112.346101 -17.136367 30.921671 77 60 52
110.801685 -29.614002 34.990710 73 44 44
110.801685 -29.614002 34.990710 73 44 44
111.883128 -58.663750 41.563764 77 49 43
110.347605 -26.602051 34.257114 34 25 27
110.846746 -32.264936 35.307020 118 86 72
111.680317 -3.759653 27.443838 16 9 9
112.217534 -52.015036 39.350587 57 45 55
110.578394 -2.313106 27.376622 84 59 50
775.498343 -379.556942 -274.396229 154 124 110
-182.400203 39.849654 191.089916 139 108 91
110.127723 -29.934964 34.457269 126 90 75
109.695506 -22.773808 32.737029 82 63 62
109.695506 -22.773808 32.737029 82 63 62
113.515592 -86.227190 46.511278 152 117 101
109.969831 -31.464446 34.596026 48 31 30
110.804701 -12.658983 29.271594 84 64 56
109.828722 -33.319128 34.791717 42 30 32
109.514320 -37.439424 35.861331 133 94 80
109.293997 -6.512690 27.455920 26 17 13
109.385645 -32.623452 33.972517 114 83 75
109.193087 -31.569794 33.819434 105 76 70
109.193087 -31.569794 33.819434 105 76 70
105.159640 6.469376 26.392198 123 85 74
108.808005 -25.066191 32.185739 122 89 70
108.513057 -24.992694 32.305685 122 89 70
109.009326 -35.308146 34.623030 74 47 43
111.903334 -54.276168 37.613085 28 21 17
109.709918 -12.834613 28.347284 98 73 62
109.143925 -58.152610 39.626428 88 77 86
108.147001 -23.274782 31.234917 114 83 71
108.125556 -37.939462 34.539083 132 97 83
106.491911 -60.041183 40.964052 160 117 100
108.498394 -9.567228 26.442459 76 57 61
108.353806 -25.603965 30.273867 127 89 77
107.065773 -56.312311 37.838924 31 25 33
-232.143283 78.276920 213.017082 151 119 107
-580.343008 242.675161 387.195563 159 124 112
109.283698 -54.728431 35.804799 37 25 22
109.467387 -93.558753 45.294327 38 30 41
747.730017 -423.587990 -269.015265 39 31 39
346.417546 -211.788201 -74.636966 120 74 58
104.716277 -1.558590 23.741660 118 81 68
104.716277 -1.558590 23.741660 118 81 68
755.733013 -410.345984 -282.932496 113 76 56
104.534256 -3.344820 23.862600 128 91 75
105.414641 -57.737964 36.821336 27 23 35
50.245768 -93.880111 79.532802 249 192 171
103.498542 -18.871504 26.260722 132 93 80
103.070879 -7.594544 23.491043 130 90 76
103.070879 -7.594544 23.491043 130 90 76
100.554705 -10.511394 21.524116 35 31 42
101.600742 -14.300627 21.115558 107 81 75
97.878903 -8.801126 19.450800 58 37 37
99.284792 -41.185653 26.111621 40 36 49
96.865022 -97.654349 41.324937 161 118 102
96.979207 1.666260 16.253799 35 14 17
96.760124 3.163378 15.576454 22 10 12
98.622507 1.398950 14.770059 162 105 86
-464.242029 147.547555 362.416959 23 16 18
-274.881721 74.590260 251.565099 152 116 103
96.379328 -19.721416 17.750154 72 59 74
987.204170 -336.511374 -529.794264 38 27 22
95.759767 -18.481718 16.678408 112 83 77
95.659304 -21.613860 17.349890 83 64 58
986.111641 -350.793910 -530.209732 35 23 18
-283.237720 108.793461 251.273489 155 124 111
655.841732 -383.255935 -293.214655 156 121 110
95.072418 -18.132883 15.615378 24 15 11
-398.603725 212.239313 309.373403 125 88 70
95.855403 -93.377596 32.476208 120 74 58
995.985317 -354.278255 -545.619917 97 86 88
93.847084 -59.206432 25.336558 90 81 92
93.847084 -59.206432 25.336558 90 81 92
651.540756 -389.971709 -294.911313 120 80 62
93.559003 -20.396371 15.215886 67 52 47
92.652231 -13.559395 13.828114 136 104 85
92.592579 -21.120587 15.435648 33 20 15
92.033476 -56.185573 21.115504 126 95 85
983.462143 -343.626451 -566.204166 32 19 19
983.738899 -349.812746 -570.594883 28 20 17
640.290403 -413.616991 -303.040862 98 87 94
-227.263927 39.769176 232.217145 80 66 71
-446.943283 140.536284 371.993232 40 27 24
-447.385025 146.249795 370.978832 30 19 17
636.820507 -373.733377 -319.351387 118 77 59
634.414148 -369.625449 -324.858427 164 131 116
86.394382 -62.090665 20.632406 102 69 59
627.676439 -417.588902 -322.096491 45 36 44
-182.634401 40.555757 200.425100 144 105 86
-185.293972 34.379563 205.437064 25 16 14
-185.293972 34.379563 205.437064 25 16 14
77.603358 -60.547239 15.875638 136 101 83
79.661107 -63.334388 14.317355 93 63 56
78.622055 -25.526544 5.209147 42 35 50
-111.031199 16.251157 133.199811 159 116 99
73.371875 -9.608233 4.711995 119 89 78
82.384831 -14.457810 -0.923061 119 89 78
79.157525 -18.895496 2.208174 123 91 79
79.069960 -20.610046 2.580615 118 88 74
78.752500 -48.281401 7.215836 34 25 19
78.752500 -48.281401 7.215836 34 25 19
78.577721 -51.969558 8.051810 27 20 18
77.355772 -17.598423 0.991842 110 81 70
-443.025017 159.625733 396.328688 149 110 94
77.553236 -91.617811 16.300397 156 121 110
77.488536 -46.622077 5.987621 156 120 105
-266.070294 79.888123 268.471217 20 15 11
-266.070294 79.888123 268.471217 20 15 11
76.669949 -99.733919 16.454273 61 55 67
890.404987 -413.296843 -612.745619 34 24 19
893.442440 -387.472606 -628.630829 148 121 104
75.018758 -47.981429 3.339754 106 90 92
75.018758 -47.981429 3.339754 106 90 92
74.537939 -50.868869 4.274595 97 86 88
-14.230509 -22.770268 75.291967 90 81 92
74.439257 -60.769528 6.205254 94 83 84
37.158227 -15.331107 27.797088 99 73 66
72.748131 -63.020277 6.685442 50 46 61
71.725810 -99.376696 14.365770 98 87 94
879.550076 -418.480206 -632.443333 37 25 22
-434.087086 163.812387 403.179789 25 20 16
-290.962338 90.343606 293.194842 25 17 14
-416.270113 143.907785 391.957808 36 23 24
71.846765 -92.499369 11.419911 157 124 109
71.403927 -99.293619 13.193756 43 34 44
71.502924 -87.523699 9.887082 116 77 58
71.502924 -87.523699 9.887082 116 77 58
70.927852 -87.294215 10.217518 116 77 58
71.799874 -51.480478 1.141735 117 91 77
71.026957 -55.320996 2.328058 34 17 12
882.521343 -434.127903 -646.590567 61 48 43
70.518935 -62.101436 3.980537 54 38 35
70.388830 -53.126943 1.187028 23 17 15
879.881954 -382.276702 -665.177774 40 27 24
70.398915 -87.734503 7.429050 153 124 107
66.976148 -63.719320 3.551876 48 42 54
66.913855 -63.760710 3.511613 48 42 55
-59.648514 -28.858149 112.149835 74 47 43
65.685356 -65.199798 3.034633 97 71 71
65.386832 -100.752878 10.196263 57 47 60
-18.523957 2.733943 59.452343 119 89 78
-422.620201 237.096977 413.962507 47 41 55
58.058459 -65.379578 -4.340338 48 41 57
-35.898039 21.966454 71.888846 77 57 52
-86.908078 4.156381 123.790956 135 103 93
-50.608695 -19.050775 95.096886 45 40 55
6.688714 -30.334729 39.509821 142 114 105
58.103085 -55.903345 -8.536621 34 21 20
-227.390504 77.222919 254.031849 21 16 12
701.365280 -371.683693 -604.107285 149 110 94
-6.166739 -25.404921 49.304008 34 17 14
867.827702 -422.266531 -769.220543 34 20 20
56.505519 -64.393663 -7.398736 54 44 39
-48.858818 -7.704167 88.874197 126 95 85
-9.589067 -25.195131 52.165329 146 117 101
-49.111071 7.930288 85.857880 78 60 53
-48.776114 7.198972 85.755521 78 60 53
106.230533 -81.251860 -57.525653 34 19 16
55.897599 -62.195837 -9.252435 38 22 18
697.698545 -349.689627 -623.554945 24 19 15
-41.548544 25.258535 73.286963 73 54 51
53.799677 -101.613128 -0.978230 46 37 45
688.457203 -365.590930 -623.900318 117 97 95
56.175750 -95.745516 -7.065619 157 123 111
50.991094 -21.786763 -16.957776 111 86 62
50.793821 -21.412247 -17.553411 57 35 25
51.890469 -66.389990 -9.708869 50 41 54
51.808429 -66.344172 -9.711183 49 41 55
-21.519454 -41.037408 63.815796 116 77 58
-346.130109 222.393656 357.679248 137 99 79
-433.630848 165.007913 464.905024 20 16 11
50.271446 -51.558775 -16.128185 45 23 23
50.460565 -53.978509 -15.878521 42 25 22
667.773581 -355.082631 -634.747314 44 24 26
49.966228 -65.516508 -13.352957 61 48 43
49.966228 -65.516508 -13.352957 61 48 43
49.487326 -63.911116 -14.573793 38 25 20
707.299852 -368.425393 -685.646629 32 22 19
700.023842 -370.037603 -682.589149 151 122 107
45.308313 -68.574870 -14.500773 111 75 68
79.035211 -177.428579 -38.148320 161 118 95
75.878990 -177.145994 -34.775683 251 192 172
73.348206 -176.361656 -33.898890 98 41 33
72.754073 -179.636633 -33.023399 251 192 173
72.289366 -184.733319 -31.883943 252 197 172
76.758665 -187.020695 -35.916272 252 196 172
-588.616323 166.414154 680.146790 152 113 93
76.313490 -183.401418 -39.278400 252 192 172
-583.958149 167.167628 679.133511 46 18 18
-583.958149 167.167628 679.133511 46 18 18
77.826786 -186.826766 -41.711110 252 192 172
77.735806 -188.749945 -41.290009 252 193 173
-39.165702 3.752708 58.363074 93 77 59
510.374784 -436.357784 -535.471106 134 109 107
39.007059 -59.652013 -24.931790 146 115 104
-294.427586 149.145925 345.729208 42 35 55
38.020903 -94.015431 -18.415377 95 61 48
82.388872 -138.029623 -66.006505 92 60 46
-295.099664 123.686171 352.940536 21 16 12
503.500509 -476.905298 -529.370403 83 54 36
490.547609 -332.750010 -544.328070 50 39 36
499.266624 -472.084761 -534.681368 156 118 103
38.454357 -129.579353 -17.464082 55 27 21
35.747752 -64.097154 -26.782906 142 105 90
35.747752 -64.097154 -26.782906 142 105 90
509.780884 -464.863348 -558.326960 87 57 39
35.679382 -54.657418 -28.724992 26 20 20
36.627230 -127.630615 -16.919534 101 72 55
35.492802 -65.879470 -26.607206 28 22 23
36.455527 -132.097888 -15.973859 122 79 60
34.524637 -102.629030 -19.579718 94 63 48
-288.242817 160.186565 346.388888 102 81 84
33.996952 -61.960834 -28.521097 117 97 95
33.872086 -64.417958 -28.170416 110 95 98
33.992776 -56.776959 -29.717153 106 93 95
33.992776 -56.776959 -29.717153 106 93 95
-58.152068 11.819755 76.233524 25 19 4
-73.600441 -10.801067 90.713352 149 117 102
-110.224605 8.573192 121.709359 146 115 100
32.042295 -105.034471 -20.199069 40 31 44
32.042295 -105.034471 -20.199069 40 31 44
33.178258 -56.965899 -30.194470 145 112 98
36.404756 -60.268813 -33.271128 145 112 98
33.105657 -60.364586 -29.527241 146 115 100
32.126135 -94.641697 -23.094094 85 49 37
32.801238 -61.209857 -29.974556 32 18 19
32.785785 -59.790683 -30.240643 31 21 21
-58.030200 11.075883 75.641465 82 78 33
32.189617 -66.434008 -29.345825 25 20 16
476.663923 -325.082445 -570.463848 150 116 97
476.663923 -325.082445 -570.463848 150 116 97
478.185320 -331.427264 -575.121641 29 18 16
35.128531 -62.814087 -35.850772 36 19 20
30.572391 -95.726812 -24.498235 155 121 105
475.864124 -327.440071 -577.214670 145 104 89
-64.946753 -6.058378 86.422718 146 117 101
30.138111 -96.371001 -24.742699 89 50 36
30.123836 -95.170599 -24.970138 89 56 41
31.372324 -59.225351 -32.822007 46 27 24
30.143666 -68.274331 -29.989535 49 37 36
-285.334849 124.156511 358.389926 29 20 16
27.611420 -105.478036 -23.625822 44 34 42
28.268248 -98.928881 -25.670302 161 127 110
488.053274 -455.681944 -590.429783 154 126 115
488.053274 -455.681944 -590.429783 154 126 115
468.198967 -352.719831 -587.768173 39 35 49
26.979703 -69.980562 -30.769610 44 38 52
25.105584 -108.173800 -24.044576 111 73 62
-59.604633 21.588303 70.094019 18 70 72
22.639252 -100.514007 -27.733648 170 126 109
19.893564 -108.819377 -28.342989 109 74 69
19.633411 -71.165478 -37.230483 44 38 52
18.790635 -93.858588 -33.294964 134 109 107
-41.335672 -23.139516 43.822673 25 16 14
17.994021 -105.138111 -33.991051 82 52 37
17.766529 -101.048243 -34.635878 85 55 40
17.782077 -99.879277 -34.886017 83 53 40
17.294067 -100.496852 -35.104725 151 118 99
17.294067 -100.496852 -35.104725 151 118 99
17.294067 -100.496852 -35.104725 151 118 99
17.310148 -97.652435 -35.635951 155 121 103
18.164769 -66.804713 -41.893804 152 118 99
-42.302200 -20.861524 42.715314 152 116 103
-990.922642 844.855881 1362.348175 76 45 34
16.751680 -68.661088 -42.304975 23 17 14
16.911472 -57.439917 -44.531772 20 15 11
15.684602 -101.532507 -36.461502 80 53 37
14.465371 -106.670058 -36.527202 101 89 92
14.465371 -106.670058 -36.527202 101 89 92
13.366640 -108.257127 -34.883174 93 82 93
-82.627648 1.809700 98.135012 106 90 92
13.459514 -64.117825 -43.449894 114 89 87
-44.366622 -23.017547 41.371390 145 112 98
13.285357 -98.999804 -38.954139 72 43 35
12.791550 -102.825975 -38.737074 77 47 33
12.326041 -28.289914 -49.663201 153 113 94
12.924920 -68.612432 -45.988798 29 18 16
7.894897 -26.210946 -44.360980 153 113 94
-69.980478 -8.094678 77.715701 39 25 24
22.052884 -148.245144 -50.262153 71 41 38
12.180605 -67.492145 -46.358579 145 104 89
-83.961922 0.492482 98.176968 146 117 101
-918.600178 511.628914 1367.716789 147 112 94
-241.707397 134.456086 332.656598 65 36 27
-241.707397 134.456086 332.656598 65 36 27
11.389522 -67.803812 -47.588360 149 112 95
-240.438128 141.436863 331.576419 70 41 31
-221.936440 102.942288 303.120279 142 109 89
8.193108 -5.791683 -56.096506 139 100 83
7.984499 -5.750581 -55.838925 139 100 83
7.651163 -4.701940 -55.671340 24 15 10
7.651163 -4.701940 -55.671340 24 15 10
7.575484 -6.136952 -56.276244 97 55 45
6.266522 -111.027038 -40.062720 105 73 64
4.922779 -27.252263 -50.663543 152 113 93
4.134198 -27.750552 -51.338059 46 18 18
4.134198 -27.750552 -51.338059 46 18 18
4.112527 -26.570165 -51.467937 47 34 25
30.223021 -182.819283 -78.123796 130 85 67
-7.186826 -39.710730 -66.051936 108 71 62
-6.742041 -17.383395 -70.589501 97 62 53
-70.370466 -20.987643 56.462479 44 38 52
-0.154815 -155.559194 -72.793424 67 37 32
-1.280242 -153.028357 -71.121484 136 91 74
-11.221061 -111.273229 -56.361872 40 34 43
-11.221061 -111.273229 -56.361872 40 34 43
-10.457279 -101.198769 -59.600580 62 35 26
-10.457279 -101.198769 -59.600580 62 35 26
-10.696096 -101.763082 -59.578985 103 71 52
-64.515114 -24.866016 42.132461 29 18 16
-200.442839 67.063570 279.635739 25 16 13
-12.355539 -100.483394 -60.982609 66 39 27
-17.599916 -60.258257 -54.894388 33 19 17
-12.766133 -104.457545 -60.921234 64 36 25
-13.450703 -104.156148 -60.815197 107 73 50
-13.362063 -105.301583 -60.975182 149 118 99
-72.641629 -37.560081 56.707400 101 89 92
-13.838515 -108.978879 -61.056787 102 81 84
-13.837299 -105.131245 -61.943221 102 87 91
-11.122261 -36.097062 -74.062997 20 17 17
-14.570013 -105.280173 -62.335634 138 108 98
7.258455 -189.322305 -102.853525 138 95 74
-59.040147 -80.232197 29.779905 130 85 67
-15.655765 -107.100940 -62.798077 58 37 29
-15.394543 -76.235259 -66.020966 35 30 42
-17.402829 -32.394642 -65.415233 122 93 73
-73.706686 -19.644149 52.773315 27 18 14
-16.466381 -48.559391 -70.245486 154 112 93
-73.744535 -19.616130 52.692318 29 18 16
-100.732505 6.268082 108.531857 146 117 101
-19.581762 -112.525427 -63.803780 38 29 38
-16.529934 -38.247660 -76.878667 29 18 19
-18.061766 -9.976315 -89.833260 128 90 74
-23.106341 -49.096462 -79.883969 144 105 86
-24.869736 -16.372995 -85.312289 25 16 14
-24.587990 -9.432542 -86.852032 16 9 9
-25.138852 -6.438712 -87.185317 14 9 6
-25.138852 -6.438712 -87.185317 14 9 6
-26.481843 -9.647526 -87.443817 113 79 63
-33.131203 -115.095615 -73.120362 50 44 59
-31.030220 -43.062010 -86.255908 88 56 52
-31.159663 -42.968249 -86.001569 88 56 52
-34.415552 -114.438200 -75.873166 40 31 41
-13.331853 -137.422836 -135.475445 72 42 28
-33.659643 -104.821777 -79.573262 62 37 25
-32.446751 -72.310245 -84.906185 21 16 9
-32.114905 -42.011902 -88.022143 21 18 32
-92.569357 -8.947504 74.266821 29 18 16
-33.806032 -77.500379 -82.968694 55 41 41
-19.948559 -189.928162 -120.923388 130 89 72
-100.936723 3.222198 95.388514 152 116 103
-32.335410 -39.962319 -91.567063 19 14 13
-32.238391 -28.709903 -93.443590 24 20 12
-36.614829 -108.583164 -80.639499 145 115 97
-35.766977 -103.580534 -83.266717 148 119 104
-33.296993 -28.181338 -93.382454 26 19 14
-33.583757 -27.698568 -94.621634 126 101 79
-37.270752 -79.729164 -85.094476 38 33 47
-36.461356 -70.956385 -88.407665 94 72 77
-36.508471 -67.374021 -88.715661 95 72 78
-113.397574 10.817216 125.339019 42 28 29
-110.868728 11.579505 120.194030 127 101 99
-96.525162 -5.260878 79.816753 114 89 87
-79.570711 -44.795236 31.645247 76 44 31
-35.283646 -28.573114 -96.065050 59 39 30
-102.197349 -0.144049 95.135540 25 20 16
-35.792771 -27.967489 -96.335745 126 96 79
-36.755055 -38.947457 -94.076425 67 51 63
-38.292742 -69.262111 -89.973187 16 15 14
-96.884811 -6.492852 79.212713 29 18 16
-38.977039 -70.652443 -90.557098 29 15 14
-80.317748 -22.923882 29.230356 47 27 30
-38.520107 -40.498787 -95.768589 15 13 13
-38.581228 -37.173390 -96.420407 13 11 11
-40.908194 -76.932770 -90.326762 19 13 12
-41.816074 -76.281816 -91.680562 136 104 86
-90.198499 -13.828357 30.926558 29 15 14
-39.618093 -26.365301 -99.811190 98 74 56
-39.618093 -26.365301 -99.811190 98 74 56
-105.511379 -20.029274 90.736103 71 41 38
-109.850490 -4.840647 87.454975 27 15 14
-115.219593 13.604580 110.978794 64 46 34
-107.342458 -15.993901 67.722154 22 14 12
-116.537762 16.499422 126.710379 133 98 80
-93.130660 -25.546917 28.794307 22 14 12
-93.773103 -24.999426 27.808747 89 69 73
-92.017794 -8.185811 22.263816 15 11 9
-103.707469 -7.587969 69.644433 102 87 90
157.071280 -2.983816 91.208363 61 36 39
165.539324 -142.968905 120.586967 156 102 63
164.352691 -142.425346 120.602560 156 102 63
160.824168 -143.700361 120.613813 158 111 73
153.648221 -7.634953 82.362729 18 11 8
153.651452 -9.630563 82.787704 22 13 8
153.275907 -2.112375 80.383319 86 61 51
154.194188 23.154055 73.082656 40 18 20
154.812777 23.005666 72.498548 157 100 77
154.722643 15.099774 74.600524 16 9 8
154.722643 15.099774 74.600524 16 9 8
153.549850 -24.040821 85.425889 24 14 6
141.124415 23.076509 74.890190 40 18 20
153.595114 -28.337115 86.250114 26 14 12
163.774431 -150.538039 117.530251 193 139 97
152.214599 -1.602326 78.738630 27 20 23
149.296749 -100.142992 106.576622 43 28 23
153.321004 -22.918759 84.293580 122 90 72
153.304386 -31.950498 86.761361 40 29 31
153.304386 -31.950498 86.761361 40 29 31
153.841758 -3.673091 78.817946 74 54 50
153.912187 -6.803134 79.417813 81 62 58
153.715634 -29.425544 85.558271 96 73 62
153.571069 -44.933674 89.331245 24 10 7
153.555298 -23.983556 83.549327 22 12 8
152.322650 -20.971860 82.590920 48 39 40
164.748514 -152.079272 115.427208 189 139 97
162.608206 -151.009107 115.457189 189 139 97
152.609968 -1.661392 76.418036 85 59 50
153.324521 -29.268152 83.802557 118 88 79
153.195822 -30.432874 83.978152 101 79 76
153.427553 -2.895477 76.124245 22 13 8
151.733506 -14.225167 79.589558 135 98 83
153.180146 22.600408 69.152433 16 11 9
153.260708 -44.798461 87.508416 35 20 16
153.086305 -1.900688 75.023246 90 67 57
151.326084 -15.771738 79.218262 134 93 80
-256.561852 55.165696 139.298987 153 116 105
233.098674 -100.814128 85.531896 122 87 76
153.161216 -49.193057 87.467718 111 84 81
152.101302 -73.075253 94.181663 71 51 53
152.101302 -73.075253 94.181663 71 51 53
152.697027 -3.104087 74.900180 29 18 14
-255.376744 54.727149 139.382958 149 113 99
151.402795 -18.811968 79.199028 133 97 80
154.642415 -50.716549 87.143725 104 77 71
154.642415 -50.716549 87.143725 104 77 71
153.164732 -23.755638 80.056655 24 15 9
150.824606 -13.944410 77.737182 143 102 86
153.179157 -28.048950 80.879170 31 17 12
152.992666 -69.732308 92.161423 63 33 25
152.526629 -84.728992 96.174455 122 87 76
152.396381 -58.878440 88.958091 157 119 100
151.774323 -22.257140 79.012471 123 89 74
151.774323 -22.257140 79.012471 123 89 74
153.877950 -65.872836 90.351778 138 108 104
150.769401 -22.100979 79.124624 123 89 74
153.303909 -27.026311 79.756773 117 89 78
152.300775 19.951057 67.135495 83 71 79
267.283511 -134.605789 84.869659 149 113 99
153.608298 -8.290946 74.358499 73 56 53
154.231763 -6.718135 73.764563 88 69 66
152.175295 -111.117780 102.534819 58 40 43
152.940166 -83.944279 94.848758 65 33 22
154.519844 -70.737386 90.838885 122 94 89
149.947965 5.257283 71.179271 136 96 80
153.114319 -46.881068 84.393847 36 19 13
151.342034 -14.390270 75.668424 136 97 82
149.485981 -21.918459 78.148508 123 89 72
151.764476 -110.885608 101.409161 58 44 50
150.960147 -31.766173 80.027694 36 33 37
153.695762 -25.114173 77.554822 106 78 71
153.332222 -23.932400 77.298278 92 70 67
151.581407 -101.596725 98.604453 149 113 99
151.126838 -15.216899 75.252104 79 47 40
151.126838 -15.216899 75.252104 79 47 40
274.805307 -148.119855 84.413064 145 112 108
155.393374 -90.084869 94.391662 132 104 97
155.393374 -90.084869 94.391662 132 104 97
153.124547 -29.260501 78.382987 106 79 71
153.124547 -29.260501 78.382987 106 79 71
152.406192 -89.750832 94.467664 120 96 94
151.674151 -52.375251 84.362394 41 29 32
152.748108 -69.628757 88.647622 63 32 19
153.738415 -51.111513 83.239633 35 20 16
152.735221 -104.429448 97.856379 148 114 103
151.257801 0.538195 69.717246 127 92 82
-179.387033 29.077202 131.289351 153 116 105
148.231411 -37.331906 80.603659 131 93 78
152.091753 -66.049474 87.107915 134 101 87
151.908672 -109.457374 98.849750 145 112 108
151.099205 -5.079529 70.749807 109 82 70
151.099205 -5.079529 70.749807 109 82 70
151.234782 -14.607568 73.196173 131 94 79
151.343822 -7.899687 71.240407 112 81 74
-177.868116 28.559327 131.143570 149 113 99
152.002800 -108.904064 98.133320 125 102 100
152.716124 -86.075377 91.760719 66 36 22
152.709985 -88.212967 92.147064 65 38 21
151.218486 -11.821903 71.876687 111 82 74
151.631534 -73.084229 88.244492 63 46 47
152.656925 -90.287912 92.548835 61 33 25
151.983988 -19.502397 73.531222 131 95 79
95.877731 -71.609628 100.771689 153 116 105
95.877731 -71.609628 100.771689 153 116 105
152.682030 -71.602124 87.202251 61 31 26
152.646172 -84.733856 90.665066 123 89 78
150.982153 -23.124631 74.287874 134 99 86
151.078725 -14.109400 71.812761 71 44 34
150.942254 -24.999300 74.682611 124 95 82
95.366055 -71.323919 100.219095 149 113 99
152.458239 -102.982855 94.940114 72 40 28
150.832725 -28.467971 75.259739 120 86 76
151.138330 -20.574427 73.049992 77 47 40
152.477229 -105.225420 95.367765 72 40 24
152.531815 -83.693671 89.515948 61 31 25
151.011717 -91.036528 91.860157 73 53 54
151.086724 -30.902627 75.606996 138 100 87
151.294291 5.803253 65.647358 106 74 62
152.305090 -107.276726 95.779335 75 42 25
152.368248 -109.318292 96.188325 75 41 28
148.475659 -77.641380 88.346338 164 121 105
151.340330 -31.337163 75.096118 129 90 76
152.492261 -103.022230 93.181711 72 39 24
151.177263 -110.277760 95.279139 62 45 48
151.126194 5.007274 64.420068 84 61 52
152.281189 -105.078495 93.541372 74 37 29
156.298149 -146.865118 103.626275 104 71 41
152.426136 -109.294307 94.295967 71 40 28
152.611625 2.037521 64.326066 98 74 71
151.443303 7.376814 63.054174 19 18 27
152.109528 0.085090 64.726585 77 56 52
151.439273 -102.896965 92.326295 149 118 108
152.569091 -106.361639 92.869556 152 117 103
152.426219 -109.533298 93.429869 142 110 101
151.866257 1.859529 63.323164 97 69 64
150.777709 -103.491056 91.669345 61 36 25
150.669551 -105.472684 91.724104 122 107 112
150.137663 1.943395 63.138938 93 63 53
150.329483 -101.577532 90.561676 23 18 21
150.577116 1.700774 62.502056 104 77 64
148.567426 10.299551 59.313750 97 65 60
151.065314 -35.062283 70.560640 118 88 82
151.925433 -46.135619 73.181111 48 37 48
152.048695 -38.901839 71.073574 125 98 90
150.943649 -106.548595 89.166796 50 28 22
148.129213 -31.259519 69.741917 133 97 80
152.958381 -54.468751 74.444371 149 107 89
151.735187 -36.561692 69.608074 51 34 28
151.607335 -41.363910 70.546073 48 33 28
151.750791 -47.887614 71.748525 38 29 24
142.392814 -6.056151 63.026255 44 39 57
147.834229 -0.771506 59.963292 106 79 71
147.770905 -2.383094 60.274065 100 77 71
147.747040 -3.965556 60.591257 103 79 75
147.841644 -5.607192 60.885102 95 74 72
151.824224 -74.702626 77.806103 151 121 112
147.774088 -7.231565 61.192358 77 60 61
151.495135 -77.552170 78.477246 154 123 110
146.828043 -49.996305 72.512442 31 28 36
150.714409 -86.829352 80.894697 46 35 42
154.895878 -146.807981 95.247400 84 58 33
146.486199 -0.428482 59.102374 30 19 15
152.796245 -104.802334 84.098393 30 27 34
152.796245 -104.802334 84.098393 30 27 34
-395.468044 106.999576 186.879444 149 120 113
147.036123 -47.613782 70.372629 50 32 24
-870.817947 203.308606 299.638152 38 29 24
143.615186 11.919434 55.741036 35 27 32
143.615186 11.919434 55.741036 35 27 32
143.983066 1.104090 58.425945 84 55 48
143.983066 1.104090 58.425945 84 55 48
154.443538 -141.836119 92.547047 31 24 30
145.465136 0.806218 57.831943 104 75 64
145.465136 0.806218 57.831943 104 75 64
-783.008957 237.105107 267.294669 161 130 116
147.316158 -86.365664 79.243338 65 52 55
146.841145 -39.771909 66.773725 96 76 78
-780.907440 240.181231 268.233752 55 36 27
978.179264 -370.605397 -95.373565 31 24 22
146.470964 -47.160721 68.000418 107 84 82
146.470964 -47.160721 68.000418 107 84 82
970.699787 -379.717803 -91.697419 24 17 14
141.554701 7.647274 54.993564 90 69 61
140.933669 3.895753 55.937034 109 74 65
140.933669 3.895753 55.937034 109 74 65
-475.399065 96.765363 216.062808 74 45 37
141.067970 2.529433 55.984515 34 22 26
144.438028 -92.910028 79.726195 160 118 103
145.880818 -37.537727 64.797878 31 24 18
145.435238 -48.611686 67.031914 49 31 23
145.567667 -87.092191 76.981640 100 86 93
140.953064 -10.824738 58.402187 44 32 33
140.542066 -4.540181 56.531137 111 83 76
140.427184 -7.501602 57.095385 124 90 78
143.949938 -47.251481 65.865022 139 105 87
141.771364 12.667620 50.841922 119 83 68
